# .PCD v0.7 - Point Cloud Data file format
VERSION 0.7
FIELDS x y z
SIZE 4 4 4
TYPE F F F
COUNT 1 1 1
WIDTH 1613
HEIGHT 1
VIEWPOINT 0 0 0 1 0 0 0
POINTS 1613
DATA ascii
82.712906 98.647942 3.8583236
82.825317 98.650024 3.8445117
83.072617 98.611671 3.8478613
83.167496 98.636581 3.849164
83.204308 98.650803 3.8953464
82.698097 98.756088 3.8216934
82.712059 98.746475 3.8671057
82.823235 98.748878 3.847425
83.182198 98.75206 3.84921
83.204887 98.747322 3.8954449
82.696968 98.855957 3.8371031
82.708649 98.839943 3.8805015
82.824348 98.848946 3.8493187
83.09478 98.805618 3.8982501
83.17675 98.841179 3.8268383
83.20578 98.803955 3.8974164
81.882645 98.993195 3.8904409
81.953171 98.989014 3.8851848
82.028442 98.98539 3.8869903
82.695412 98.947647 3.8473892
82.701202 98.939293 3.8875625
82.8265 98.950943 3.8503895
83.174721 98.954758 3.8328583
83.376244 98.979927 3.8789637
83.447975 98.98288 3.8713722
83.550041 98.983673 3.8769917
83.602379 98.996742 3.8959124
81.282143 99.093079 3.847755
81.340263 99.089554 3.8485117
81.887695 99.054649 3.8552425
81.948448 99.018784 3.8408468
82.052124 99.021774 3.8466041
82.151093 99.025398 3.8506703
82.249619 99.023216 3.8499372
82.351295 99.021111 3.8498855
82.451279 99.019943 3.8501201
82.548355 99.019707 3.849982
82.654198 99.016739 3.849978
82.70108 99.012726 3.8892651
82.855064 99.016312 3.8406665
82.943062 99.017799 3.8484762
83.004669 99.017036 3.8416061
83.183823 99.009125 3.851383
83.24733 99.016441 3.8525515
83.341301 99.014099 3.8419096
83.450211 99.005524 3.8213251
83.568047 99.045647 3.8359327
83.630081 99.063629 3.8749995
81.229652 99.144119 3.8488755
81.390312 99.10627 3.848592
81.425148 99.141762 3.8449018
81.888802 99.131699 3.8563888
81.948227 99.159149 3.8534656
82.038521 99.158501 3.8528883
82.153442 99.157135 3.8154848
82.254707 99.156212 3.8492072
82.31868 99.156769 3.8517501
82.570541 99.158607 3.8421998
82.667648 99.167862 3.8534417
82.700684 99.190857 3.8582499
82.850395 99.162178 3.8459663
82.943161 99.153427 3.8480124
83.080307 99.150604 3.8775513
83.169067 99.15834 3.8532524
83.249413 99.137642 3.8514259
83.350525 99.145767 3.8506672
83.451164 99.155891 3.8512499
83.552376 99.14386 3.8558919
83.620384 99.121254 3.8830097
81.215302 99.246819 3.8506625
81.396851 99.297852 3.8114166
81.428497 99.265015 3.840709
82.696159 99.250618 3.851594
82.700684 99.276855 3.8977499
82.825325 99.254517 3.8399463
83.164604 99.246796 3.8328953
81.266518 99.317711 3.8478072
81.352211 99.325165 3.8397667
81.404381 99.303062 3.87765
82.694832 99.347061 3.8371506
82.70826 99.357689 3.8809855
82.817978 99.348129 3.847856
82.998276 99.39212 3.8977499
83.003777 99.39196 3.891917
83.173119 99.357658 3.8386161
83.211151 99.38192 3.8912234
83.398026 99.323364 3.8982501
83.403778 99.319618 3.8912499
82.693291 99.450401 3.8317347
82.709496 99.450401 3.8775902
82.814957 99.450386 3.8448012
82.998779 99.443497 3.8954997
83.013336 99.458466 3.8828626
83.18306 99.451485 3.8391559
83.211296 99.451118 3.8882735
82.693245 99.552498 3.8318191
82.711197 99.552849 3.8765907
82.814217 99.545738 3.8453891
82.999763 99.572815 3.8939099
83.058304 99.556992 3.8595948
83.156563 99.545387 3.8510194
83.212654 99.538132 3.8875074
81.967766 99.697205 3.8978167
82.689102 99.652588 3.8508306
82.708267 99.622887 3.8671403
82.823189 99.648911 3.849411
81.096367 99.777069 3.8524227
81.146637 99.755424 3.8547716
81.224518 99.763474 3.8633773
81.886398 99.787628 3.8883407
81.949272 99.761543 3.8577516
82.023697 99.773384 3.8778605
82.686806 99.749489 3.8525362
82.743538 99.766747 3.8759103
82.820122 99.753311 3.8456376
81.095116 99.850983 3.8506107
81.100761 99.80381 3.8714099
81.238678 99.849358 3.8819172
81.867516 99.844597 3.8565757
81.914398 99.817207 3.8302217
82.056389 99.843445 3.8472009
82.117332 99.876984 3.8792431
82.678795 99.849686 3.8505211
82.8218 99.849754 3.8520651
81.093414 99.944649 3.8423526
81.106209 99.97226 3.8814821
81.236679 99.928055 3.8804984
81.883537 99.918236 3.8834865
81.943008 99.955322 3.8493726
82.090096 99.910393 3.8224843
82.145782 99.961205 3.8481138
82.683609 99.949638 3.8518417
82.793648 99.973457 3.8849363
82.81591 99.943451 3.8438933
81.092827 100.05242 3.8355191
81.105431 100.04482 3.8843737
81.228912 100.06115 3.8138592
81.978821 100.01622 3.8752263
82.050194 100.05238 3.8499553
82.192574 100.00764 3.8436866
82.240143 100.05762 3.8512421
82.68869 100.0507 3.850457
82.795547 100.05074 3.8800662
82.811989 100.05141 3.8252106
83.194763 100.09081 3.85291
83.20871 100.0676 3.8747435
81.090324 100.14954 3.8489995
81.102715 100.10506 3.8925111
81.22966 100.10626 3.8251727
82.094757 100.10606 3.8398411
82.141273 100.15392 3.8489475
82.289452 100.11037 3.8441358
82.337311 100.15898 3.8518586
82.683617 100.14619 3.8510737
82.7985 100.11657 3.8854322
82.812347 100.15399 3.8425121
83.065536 100.13891 3.8514123
83.154221 100.15754 3.852212
83.20076 100.12531 3.8029101
81.089149 100.24936 3.8500569
82.193192 100.20862 3.8447032
82.240829 100.25705 3.8517106
82.388763 100.21201 3.8541973
82.437271 100.26148 3.8566704
82.679649 100.24782 3.8528867
82.812004 100.24852 3.8432493
83.16333 100.24678 3.8520706
81.08773 100.34557 3.8506746
82.290825 100.30853 3.8465502
82.337616 100.35593 3.8517854
82.487076 100.31302 3.8553925
82.537231 100.36434 3.8557534
82.677155 100.35132 3.8538532
82.810257 100.34864 3.8433595
83.098778 100.31612 3.8912501
83.153999 100.33964 3.8387833
81.086273 100.45215 3.8485789
82.388062 100.40635 3.8652673
82.408394 100.42378 3.8759494
82.584915 100.41343 3.8493631
82.655296 100.45406 3.8541441
82.808655 100.44234 3.8449218
83.151253 100.45097 3.8217406
80.375435 100.54512 3.8485343
80.449287 100.54973 3.8509846
80.551079 100.55579 3.8522282
80.651489 100.56302 3.8492298
80.749962 100.56501 3.8497345
80.849136 100.56593 3.8493133
80.948929 100.56358 3.8504746
81.049362 100.55751 3.8484888
81.275162 100.5737 3.844831
81.348686 100.57632 3.8493266
81.450233 100.58441 3.8488197
81.551392 100.58793 3.848541
81.652084 100.58829 3.8458862
81.749893 100.58692 3.8509169
81.835945 100.58931 3.8580778
81.951004 100.58764 3.8889711
82.014229 100.58763 3.8914855
82.280075 100.59915 3.8812866
82.365768 100.59883 3.8809321
82.451836 100.59097 3.8652079
82.52549 100.56799 3.8330371
82.673843 100.50506 3.8479652
82.808136 100.54435 3.8485363
82.924187 100.58711 3.8299
83.149567 100.54793 3.8331592
83.236778 100.58762 3.8592501
83.375626 100.59008 3.8899133
83.447029 100.59247 3.8893297
83.531418 100.59509 3.8920681
80.36731 100.63952 3.8486876
80.443298 100.68291 3.8487241
80.54879 100.68961 3.8488731
80.650383 100.68889 3.8472846
80.744019 100.69163 3.8464103
80.843651 100.69395 3.851404
80.943565 100.69831 3.8666737
81.00959 100.6997 3.8869581
81.381012 100.69931 3.88991
81.420464 100.69923 3.8821318
81.578911 100.60015 3.89502
81.654442 100.60233 3.8915546
81.873779 100.6066 3.8457832
81.949883 100.60546 3.8391082
82.050301 100.60893 3.8488936
82.150467 100.60942 3.8488438
82.249023 100.60339 3.8500061
82.33709 100.60244 3.8439999
82.435509 100.60184 3.8513258
82.668762 100.69931 3.88691
82.799278 100.6064 3.8500354
82.840988 100.60454 3.8387918
82.938347 100.60474 3.8198402
83.174713 100.60445 3.8487523
83.25103 100.61076 3.850877
83.348297 100.60835 3.8437073
83.450462 100.60632 3.8413143
83.551201 100.64836 3.8496871
83.621872 100.67897 3.8847358
80.539879 100.70109 3.8972795
80.784309 100.70066 3.8173027
80.850906 100.70139 3.8136103
80.958534 100.70115 3.8289027
81.058922 100.72575 3.846591
81.23764 100.73587 3.8434677
81.352165 100.71365 3.8468826
81.452492 100.71294 3.8455727
81.552094 100.71513 3.8444462
81.650925 100.71951 3.8485978
81.750389 100.72837 3.8500638
81.850281 100.73869 3.8474915
81.950607 100.74786 3.8517752
82.048729 100.74326 3.8468082
82.150421 100.74091 3.8463395
82.250015 100.744 3.8492599
82.345749 100.74388 3.8481021
82.449821 100.74314 3.8477051
82.541115 100.74227 3.8482847
82.651772 100.75484 3.8502691
82.73291 100.76312 3.8895888
83.157059 100.7532 3.8475235
83.257454 100.73931 3.8462803
83.354126 100.74832 3.84817
83.450478 100.75559 3.8544145
83.544495 100.73672 3.8629766
83.616844 100.71371 3.8897083
80.695267 100.89931 3.8584099
81.074455 100.83286 3.8489521
81.21698 100.8363 3.8517272
81.619759 100.89781 3.8984101
82.665649 100.83542 3.8608248
82.783394 100.81581 3.8923473
82.820541 100.85474 3.8902574
83.142189 100.8428 3.8378265
83.38118 100.80352 3.8854499
80.679245 100.96053 3.8457406
80.892754 100.9929 3.8805099
80.948639 100.9854 3.8787925
81.053139 100.95871 3.8860011
81.23172 100.95934 3.8813739
81.335739 100.98695 3.8666806
81.597763 100.90731 3.8659101
81.61692 100.95541 3.8523941
82.190918 100.9703 3.8522551
82.220261 100.90807 3.83741
82.658417 100.95506 3.8885283
82.868759 100.90681 3.8849101
83.161629 100.94281 3.8205972
83.252373 100.95782 3.8221569
83.360001 100.95263 3.8458893
83.469017 100.95892 3.8478162
83.513382 100.96483 3.8868792
80.683052 101.03991 3.8495257
80.750015 101.06123 3.8503253
80.844078 101.05486 3.846092
80.947685 101.04643 3.8372917
81.053383 101.05993 3.8514471
81.192642 101.09425 3.8836746
81.235123 101.0568 3.8489282
81.352219 101.04617 3.8312848
81.456398 101.06099 3.8501451
81.550735 101.06583 3.8522224
81.614624 101.04234 3.8572917
82.190742 101.049 3.8554385
82.248909 101.08113 3.8497782
82.345711 101.07923 3.847276
82.450287 101.07143 3.8333814
82.55101 101.07543 3.8358195
82.642075 101.08201 3.8489013
82.797356 101.09175 3.8476231
82.848511 101.08838 3.8405955
82.926514 101.08996 3.8355098
83.01358 101.08888 3.8047402
83.178253 101.03731 3.8142428
83.264183 101.08845 3.8407767
83.354607 101.09306 3.834151
83.47261 101.06828 3.8357284
83.513855 101.05099 3.8870308
81.073769 101.15034 3.8465636
81.196327 101.15195 3.8790224
81.209938 101.14751 3.830646
82.150421 101.11665 3.836132
82.267761 101.10031 3.89991
82.335732 101.10484 3.8956242
82.663345 101.14798 3.8492892
82.79422 101.14789 3.845305
82.801788 101.11212 3.8509998
82.998642 101.16791 3.8096189
83.060715 101.15075 3.8384757
83.12809 101.17976 3.8448689
83.275948 101.1324 3.8475087
83.339615 101.15096 3.8598299
83.453011 101.11922 3.879703
83.513374 101.11938 3.889807
81.067368 101.24903 3.8526103
81.197212 101.20962 3.8726501
81.213966 101.25132 3.8522301
82.658829 101.25294 3.8503196
82.789413 101.24893 3.8411584
82.817375 101.28347 3.8761797
82.998344 101.26213 3.8234808
83.010742 101.24309 3.8361261
83.149361 101.24529 3.8426938
83.226707 101.27399 3.8487148
83.367035 101.23676 3.8425922
83.441673 101.2715 3.8601522
81.061272 101.35236 3.8498802
81.190758 101.32031 3.8889101
81.214272 101.35066 3.8529198
82.646622 101.34985 3.8520725
82.789551 101.3494 3.8277278
82.819817 101.35085 3.8747308
82.991425 101.3532 3.8476899
83.001671 101.37091 3.8612494
83.14257 101.35382 3.8526583
83.279137 101.34547 3.8529356
83.318748 101.37611 3.83371
83.47419 101.32775 3.8303056
83.539925 101.36361 3.8594174
81.071541 101.44249 3.8655295
81.15303 101.45898 3.8492241
81.214104 101.43224 3.8763554
82.135841 101.45931 3.8072526
82.652817 101.45144 3.8536341
82.759483 101.46629 3.8309479
82.819572 101.44921 3.8759255
82.987389 101.4342 3.8633289
83.050148 101.44731 3.853564
83.131165 101.43806 3.8587852
83.287125 101.4104 3.886775
83.357079 101.44606 3.8548262
83.443314 101.48827 3.8250043
83.559204 101.45289 3.8475192
81.094498 101.5079 3.8969376
81.135643 101.51315 3.8871238
82.673965 101.53126 3.877713
82.740944 101.54263 3.8714366
82.808594 101.50796 3.8909173
83.391571 101.50848 3.8806968
83.451736 101.52927 3.8679852
83.552643 101.5306 3.8666742
82.680466 101.6049 3.8787174
82.722763 101.60231 3.89291
82.667282 98.353432 3.9474123
82.782455 98.322922 3.9305091
82.865211 98.347824 3.9436057
82.664932 98.450645 3.947845
82.87693 98.446342 3.9412866
83.07653 98.461563 3.9827631
83.145798 98.464775 3.9842322
81.957932 98.597099 3.9973824
82.021118 98.593933 3.9963586
82.670357 98.53215 3.950685
82.717796 98.572762 3.9430914
82.859962 98.541618 3.9411044
82.995781 98.588509 3.9650278
83.058815 98.566101 3.9434147
83.155357 98.557281 3.9544177
83.215019 98.589973 3.9459515
83.393471 98.592384 3.9943597
83.406441 98.596283 3.9980831
81.897972 98.666512 3.9839444
81.947388 98.649307 3.9733121
82.019432 98.647957 3.9720712
82.718193 98.650215 3.9507091
82.819473 98.65049 3.9491394
82.988785 98.606621 3.9407501
83.002777 98.616623 3.9052501
83.182144 98.601418 3.9205101
83.219902 98.649872 3.9423752
83.394646 98.650635 3.9635737
83.443909 98.659058 3.9767613
83.513107 98.683159 3.990052
81.898056 98.752708 3.9741755
81.945709 98.748283 3.9459658
82.020882 98.750305 3.9431269
82.717056 98.749878 3.949019
82.818047 98.749664 3.9476495
83.199783 98.772621 3.9992499
83.218826 98.746735 3.9409852
83.394875 98.735603 3.9403448
83.451866 98.747841 3.9451082
83.51757 98.753479 3.9711263
81.89801 98.850098 3.9713106
81.943817 98.847862 3.941947
82.021561 98.848694 3.9401817
82.699493 98.888847 3.9143529
82.71125 98.84832 3.9489422
82.820145 98.841537 3.9366956
83.072845 98.826668 3.9364502
83.156929 98.85157 3.9500027
83.216484 98.809143 3.9445307
83.390785 98.861618 3.9322159
83.451027 98.848694 3.9306402
83.517899 98.850838 3.9606845
81.875153 98.965233 3.9555945
81.947441 98.947578 3.935519
82.040802 98.955978 3.9364438
82.114182 98.985535 3.9495716
82.698883 98.955948 3.9219065
82.704689 98.94249 3.9597082
82.82843 98.935532 3.9107265
82.958191 98.99411 3.9159
83.07872 98.959206 3.9456971
83.152916 98.95137 3.9564393
83.369026 98.961929 3.9285696
83.451096 98.941086 3.924629
83.544006 98.956284 3.9487407
83.60334 98.996078 3.9361851
81.281471 99.095398 3.9693372
81.341454 99.095757 3.9560468
81.666458 99.054039 3.9939749
81.753708 99.047363 3.9740591
81.842278 99.043533 3.9437637
82.087257 99.018661 3.9295845
82.151077 99.020058 3.9488268
82.249252 99.018295 3.9492755
82.349983 99.016891 3.9478724
82.449516 99.015572 3.9497201
82.549194 99.01474 3.9498098
82.652901 99.013046 3.9474492
82.704933 99.008446 3.9715848
82.860809 99.014038 3.9509475
82.947426 99.012695 3.9378021
83.049881 99.008705 3.9371753
83.16732 99.007919 3.9394712
83.247925 99.010056 3.9487057
83.321114 99.010422 3.9530096
83.580116 99.004143 3.9913881
83.65667 99.037178 3.9425509
83.731476 99.060608 3.9680634
81.248032 99.145393 3.9545062
81.3536 99.115387 3.9577224
81.420982 99.148193 3.965631
81.668045 99.12603 3.9940891
81.754265 99.131523 3.9748828
81.849892 99.147324 3.9435148
81.957726 99.191292 3.916985
82.059227 99.183121 3.9312239
82.151604 99.1465 3.9602654
82.246208 99.149544 3.950681
82.336586 99.152527 3.9614999
82.447655 99.153595 3.9688311
82.561798 99.155022 3.9609118
82.671913 99.164139 3.9505765
82.708832 99.185173 3.9648514
82.857658 99.155579 3.9495244
82.935776 99.149658 3.9483736
83.082443 99.17704 3.9391706
83.156868 99.157913 3.9411922
83.250237 99.138466 3.9393249
83.344902 99.167168 3.9342637
83.455185 99.187202 3.9186449
83.551826 99.172653 3.9520748
83.64518 99.133522 3.9492526
83.718056 99.119164 3.9732778
81.232391 99.251602 3.9547503
81.433708 99.267265 3.9716442
81.891487 99.238457 3.9707923
81.944595 99.24675 3.957346
82.021233 99.249016 3.959142
82.695763 99.254303 3.9530351
82.710114 99.23542 3.9605765
82.827545 99.241547 3.9291089
83.081718 99.24868 3.9392939
83.158295 99.247215 3.9579141
83.386902 99.252579 3.9290452
83.453293 99.254097 3.9255791
83.513992 99.254639 3.9571059
81.270874 99.315926 3.9626427
81.352287 99.324654 3.9712205
81.410454 99.309616 3.9719491
81.898087 99.328102 3.986619
81.946472 99.351936 3.9816973
82.019386 99.351379 3.9804244
82.691154 99.346298 3.9743783
82.71302 99.35302 3.9340179
82.809937 99.354103 3.9259913
82.995781 99.393623 3.9012499
83.085785 99.311699 3.9385695
83.164368 99.334206 3.9519
83.220024 99.374779 3.9413264
83.390388 99.353973 3.9254394
83.452347 99.353241 3.9283209
83.514206 99.348305 3.9616663
81.591782 99.48954 3.9946046
81.645432 99.478851 3.9814131
81.894333 99.458763 3.9793139
81.948891 99.449707 3.9608502
82.017387 99.447388 3.9569449
82.690315 99.451668 3.9782763
82.712547 99.449265 3.9348845
82.810455 99.44532 3.945936
83.174927 99.448425 3.9917209
83.223999 99.450455 3.9431343
83.38858 99.451309 3.9428523
83.450966 99.451126 3.9534161
83.51313 99.438866 3.9761686
81.210823 99.581993 3.9908211
81.578651 99.549393 3.9814005
81.651695 99.547798 3.955189
81.738594 99.561775 3.9558432
81.89006 99.551834 3.9680927
81.947853 99.549492 3.9391177
82.016815 99.547935 3.9356623
82.674942 99.563202 3.9607408
82.711388 99.543304 3.9331264
82.821213 99.549927 3.9429369
82.994392 99.574486 3.9309413
83.046562 99.586243 3.9281077
83.161972 99.579628 3.9431255
83.221504 99.549568 3.9428217
83.387909 99.537689 3.9778039
83.439507 99.523468 3.985131
83.506226 99.503998 3.996841
81.147865 99.664772 3.9834387
81.213638 99.658524 3.9874613
81.598534 99.60218 3.975306
81.658806 99.643562 3.9560761
81.752747 99.648331 3.9397173
81.857788 99.655106 3.9594107
81.950989 99.655342 3.9375198
82.015732 99.652603 3.9374707
82.649673 99.651398 3.9470384
82.794777 99.613617 3.92625
82.859329 99.651665 3.9443009
83.07148 99.64888 3.9511392
83.152618 99.651619 3.9616442
83.212082 99.633934 3.9616299
80.676682 99.752861 3.99825
80.762856 99.772881 3.9829292
80.849304 99.770279 3.9684966
80.94899 99.772263 3.9682765
81.061691 99.756683 3.9530985
81.147453 99.725082 3.9458222
81.250206 99.74334 3.9460008
81.350578 99.785629 3.9817119
81.433876 99.791405 3.9913375
81.559074 99.788414 3.9796636
81.652596 99.784592 3.9658878
81.74836 99.755043 3.9576647
81.857811 99.754303 3.9368382
81.934143 99.72245 3.9249053
82.047615 99.76413 3.9391558
82.150215 99.792816 3.97016
82.249443 99.793747 3.9740264
82.348091 99.794228 3.9767721
82.450394 99.795792 3.9791105
82.546753 99.797974 3.9821634
82.646248 99.751442 3.9454801
82.746521 99.752365 3.9131021
82.856842 99.753265 3.9404764
83.075317 99.731491 3.9777973
83.148193 99.731071 3.9816217
83.203423 99.710144 3.9852436
80.759384 99.848038 3.9822836
80.84816 99.847939 3.9599655
80.94854 99.847649 3.958709
81.05304 99.849281 3.9425483
81.275818 99.849808 3.9366441
81.352936 99.850349 3.9741518
81.442986 99.844925 3.990947
81.54866 99.850273 3.9734802
81.649101 99.851494 3.9478905
81.752335 99.851219 3.9462619
81.824806 99.837967 3.9271297
82.090927 99.811668 3.9243391
82.145988 99.847542 3.9442565
82.250893 99.850876 3.9552975
82.351677 99.847687 3.9565179
82.446892 99.847961 3.957988
82.551979 99.849648 3.9609406
82.632103 99.848923 3.9394622
82.852112 99.848228 3.9420562
80.779778 99.901352 3.9886537
80.855843 99.902374 3.9767365
80.959793 99.903389 3.9808121
81.061134 99.923157 3.9452214
81.110626 99.975479 3.9483407
81.266716 99.923515 3.9303553
81.345207 99.9077 3.9913552
81.496452 99.913986 3.9980366
81.551018 99.914978 3.9751689
81.652687 99.913826 3.9482505
81.750984 99.916855 3.9455953
81.868423 99.946686 3.9482596
81.913391 99.985664 3.9226456
82.170441 99.957321 3.9398656
82.249123 99.922112 3.9576664
82.348694 99.919579 3.9566591
82.455826 99.920326 3.9597526
82.552216 99.920044 3.9609506
82.65416 99.949219 3.9406931
82.777 99.978928 3.9384291
82.84185 99.947296 3.947506
81.096504 100.09346 3.9407306
81.110283 100.05101 3.949718
81.886032 100.05086 3.9672804
81.946579 100.04874 3.934768
82.054008 100.06662 3.9443529
82.192078 100.01001 3.9560742
82.242508 100.05603 3.9477575
82.693398 100.05219 3.9519222
82.763405 100.04921 3.9326961
82.810944 100.0474 3.9732921
83.070435 100.05129 3.9797404
83.142349 100.05673 3.9806514
81.092903 100.14842 3.932909
81.107758 100.14009 3.977973
81.884056 100.14993 3.9665835
81.945824 100.15129 3.9455614
82.036568 100.13676 3.9503245
82.145302 100.15315 3.9490533
82.291252 100.10806 3.95696
82.33828 100.15487 3.9439688
82.685875 100.14429 3.9483266
82.780762 100.11252 3.9281361
82.810791 100.15266 3.9505038
82.991257 100.10915 3.9591534
83.051414 100.11132 3.9356682
83.163315 100.12153 3.9312088
83.211609 100.15088 3.9508872
83.396347 100.18784 3.9917908
83.407722 100.18983 3.9952331
81.091103 100.24909 3.9313021
81.109436 100.24879 3.9846799
81.881493 100.24903 3.9670496
81.948906 100.25101 3.9464478
82.01162 100.24826 3.9452627
82.195602 100.20521 3.9506099
82.242783 100.25341 3.9500318
82.391251 100.21014 3.9522557
82.43969 100.25948 3.9480851
82.680489 100.25181 3.9503188
82.810402 100.25046 3.9528451
83.193726 100.25208 3.9068339
83.210724 100.24953 3.9513512
83.394432 100.2506 3.9603722
83.444366 100.25581 3.9714491
83.514008 100.2803 3.9866793
81.090233 100.34963 3.9301903
81.109207 100.34875 3.98611
81.879791 100.35037 3.9669456
81.950455 100.35023 3.9468687
82.00647 100.34785 3.9448178
82.29409 100.3066 3.9502871
82.342491 100.35595 3.9495862
82.489296 100.31135 3.9494159
82.539146 100.36214 3.9445081
82.679153 100.3467 3.9476519
82.798309 100.37368 3.9540732
82.808823 100.3474 3.9495533
83.072327 100.3554 3.9460013
83.152405 100.34877 3.946183
83.209343 100.31953 3.9555757
83.394318 100.3457 3.9352784
83.450928 100.34849 3.9404371
83.51609 100.35229 3.9663475
81.088051 100.44848 3.9316826
81.11068 100.44469 3.9869521
81.879623 100.44404 3.9657662
81.948555 100.44484 3.9493949
82.008057 100.44328 3.9501536
82.393799 100.40804 3.9492097
82.408646 100.42305 3.949816
82.587807 100.41211 3.9460428
82.659485 100.45276 3.9499686
82.796143 100.45001 3.9534163
82.807556 100.44093 3.9413071
83.076744 100.44983 3.9544487
83.143219 100.44643 3.9640176
83.392349 100.45306 3.9369826
83.451195 100.44917 3.9341314
83.515816 100.45026 3.9596515
80.381477 100.52386 3.9447632
80.449715 100.51044 3.9471676
80.552361 100.51747 3.9451044
80.648186 100.55972 3.9500828
80.749489 100.56625 3.9491727
80.849243 100.56898 3.9506512
80.950256 100.56624 3.9484954
81.048019 100.56121 3.9481807
81.108994 100.54247 3.9863915
81.266586 100.58009 3.9537532
81.349579 100.58322 3.9514966
81.449852 100.59035 3.9505074
81.544113 100.58971 3.960053
81.663071 100.56431 3.9566884
81.750244 100.55101 3.9463253
81.851746 100.55203 3.945457
81.948792 100.54782 3.932997
82.036835 100.57153 3.9454784
82.149323 100.59476 3.9844618
82.243019 100.59756 3.9637618
82.349312 100.5983 3.9652081
82.446457 100.5923 3.9607773
82.512558 100.59628 3.9509819
82.680016 100.50574 3.9604118
82.793701 100.51569 3.9555576
82.807579 100.54097 3.9158397
83.080376 100.54679 3.9522507
83.140129 100.54589 3.9624863
83.366257 100.56551 3.933228
83.450851 100.54871 3.9298778
83.535927 100.56353 3.9510121
80.370811 100.66362 3.9333968
80.442795 100.69824 3.9028409
80.583504 100.68256 3.9190981
80.652374 100.67727 3.9378157
80.746506 100.68169 3.9446795
80.849495 100.68394 3.9397647
80.947433 100.69461 3.9325292
81.020287 100.69915 3.9305999
81.272949 100.60362 3.9623106
81.361336 100.63345 3.9526756
81.457603 100.65097 3.9622636
81.549225 100.62019 3.9480557
81.635574 100.60484 3.9334004
81.844429 100.61805 3.9112206
82.073158 100.61443 3.9330356
82.153427 100.6132 3.9386413
82.235764 100.60261 3.9340353
82.347519 100.60065 3.9368627
82.448029 100.60084 3.9433787
82.845978 100.60687 3.9492936
83.092255 100.60224 3.9462874
83.161049 100.60699 3.9462082
83.251831 100.61395 3.9480982
83.314568 100.61502 3.9360652
83.589081 100.61002 3.9429681
83.65155 100.64913 3.942204
83.731377 100.66374 3.9721098
80.381828 100.71742 3.9557559
80.449318 100.71951 3.9482265
80.545135 100.72211 3.9452779
80.608154 100.71104 3.964148
80.793831 100.702 3.9589653
80.853645 100.7028 3.9839575
80.935089 100.70515 3.9786839
81.06823 100.73246 3.9419022
81.104576 100.78569 3.9758899
81.212517 100.77972 3.9485784
81.373062 100.70423 3.9135768
81.459991 100.70287 3.9347727
81.553329 100.70727 3.9475603
81.654694 100.74381 3.9441245
81.752174 100.7606 3.9388776
81.845375 100.76241 3.9384446
81.950806 100.77296 3.9349558
82.043251 100.74998 3.9461102
82.152481 100.72502 3.9450831
82.244949 100.73505 3.9413881
82.348396 100.73455 3.949126
82.448952 100.73503 3.9498906
82.540276 100.73602 3.9424365
82.657806 100.75932 3.9352059
82.701576 100.73369 3.9191401
83.076431 100.76457 3.9515171
83.149269 100.75493 3.9526086
83.243195 100.73286 3.9366941
83.347183 100.769 3.9229419
83.460075 100.79118 3.9228966
83.554993 100.77969 3.9529071
83.647499 100.73878 3.9514134
83.722839 100.72691 3.9743781
80.650688 100.88828 3.9573367
81.074997 100.83464 3.9114165
81.212654 100.81502 3.9410462
81.597778 100.89762 3.9042499
81.6399 100.89039 3.9377937
81.918762 100.80331 3.9499099
82.162834 100.89777 3.9533901
82.665733 100.82617 3.9215777
82.807755 100.83931 3.9049101
83.067215 100.8428 3.9536779
83.132767 100.83982 3.9652514
83.38427 100.84632 3.943449
83.460892 100.85106 3.9471319
83.505745 100.83807 3.9735527
80.480263 100.96925 3.9885046
80.545631 100.97128 3.9639809
80.647446 100.95192 3.9378541
80.955185 100.98563 3.9610741
81.055786 100.9763 3.9396651
81.188698 100.97436 3.9617641
81.225586 100.96684 3.9453256
81.340324 100.98312 3.9639199
81.592781 100.91462 3.90925
81.64756 100.95095 3.9397721
81.753738 100.97697 3.9735031
81.808022 100.9777 3.9955497
82.08226 100.9747 3.9911551
82.150955 100.9575 3.9488251
82.663361 100.95932 3.9177008
83.093277 100.90112 3.9542501
83.136848 100.90256 3.9691834
83.383736 100.91589 3.9152052
83.456459 100.91499 3.9245059
83.532997 100.94867 3.9391067
80.482353 101.01836 3.9916706
80.549576 101.02208 3.979531
80.656174 101.06084 3.9436009
80.746826 101.08694 3.9175475
80.843353 101.07778 3.9186752
80.956886 101.03634 3.9695284
81.059837 101.05069 3.9481773
81.190758 101.02871 3.9637296
81.228455 101.05183 3.9536574
81.34021 101.05199 3.9757993
81.450974 101.08659 3.9473329
81.549866 101.09029 3.9555912
81.648399 101.0579 3.9515159
81.748543 101.03979 3.9756067
81.809189 101.03384 3.9937918
82.083366 101.03934 3.9909213
82.145744 101.049 3.9518163
82.235077 101.09858 3.9015551
82.385902 101.06364 3.9385252
82.455833 101.05611 3.9593685
82.540916 101.05923 3.9605289
82.647568 101.05992 3.9438126
82.796448 101.07431 3.9382758
82.84951 101.0705 3.9616327
82.90789 101.07237 3.961323
83.19603 101.05137 3.92925
83.238365 101.0732 3.9424324
83.534988 101.04798 3.9393096
80.678238 101.10168 3.9722583
80.749321 101.10229 3.9660225
80.83287 101.10279 3.9622025
81.077805 101.14671 3.9428284
81.198051 101.15473 3.9331062
81.204048 101.13515 3.9506586
81.459633 101.10235 3.9483736
81.548828 101.10183 3.9455101
81.623337 101.10173 3.9436204
82.175743 101.1155 3.9448609
82.247513 101.11764 3.9424508
82.345428 101.11902 3.9435043
82.666069 101.15189 3.9425144
82.791512 101.1496 3.9451468
83.13279 101.18446 3.9407299
83.274857 101.1315 3.9451373
83.347702 101.153 3.931252
83.458405 101.15521 3.9350009
83.527534 101.13228 3.9384255
80.656754 101.27354 3.9708214
80.742584 101.28122 3.9329011
80.849709 101.28645 3.9302325
80.941849 101.28436 3.9359064
81.042786 101.24619 3.9326823
81.198463 101.21087 3.9498463
81.249588 101.25946 3.9320855
81.353004 101.28977 3.9501562
81.453499 101.29333 3.9523458
81.539955 101.29362 3.9773471
82.264984 101.29772 3.9862504
82.307777 101.29962 3.96525
82.464241 101.29769 3.9491398
82.572693 101.29222 3.9576695
82.633087 101.2522 3.9370611
82.784897 101.21571 3.9196815
82.840454 101.27267 3.936126
83.168755 101.24229 3.9423237
83.229179 101.27586 3.9388571
83.343826 101.21329 3.9235253
83.470673 101.24987 3.9423168
80.664352 101.35178 3.9764545
80.75251 101.36483 3.9518521
80.847794 101.36893 3.9480798
80.947052 101.36724 3.9483979
81.023209 101.35796 3.9319143
81.257858 101.35172 3.9334235
81.352692 101.35291 3.949472
81.454292 101.34933 3.9535773
81.539925 101.34924 3.9780135
82.274132 101.34037 3.9841206
82.350571 101.35636 3.9583075
82.448296 101.3541 3.942344
82.549393 101.35294 3.9425414
82.611122 101.35178 3.9240046
82.786095 101.39498 3.9682434
82.852219 101.35706 3.9324193
82.941261 101.36552 3.9321089
83.179672 101.353 3.9230311
83.245583 101.36008 3.9345527
83.492516 101.30803 3.9659243
83.557198 101.33834 3.940767
83.650627 101.34596 3.9512475
83.751617 101.35009 3.9542561
83.8414 101.34983 3.9784689
83.90377 101.32697 3.99858
80.674767 101.40298 3.98491
80.976784 101.40062 3.9602499
81.039696 101.46255 3.9426432
81.193604 101.4691 3.9771748
81.238831 101.44639 3.9517899
81.351028 101.41238 3.9709644
81.449486 101.41618 3.9723141
81.53257 101.41643 3.9838026
82.296982 101.40934 3.9896212
82.356895 101.42295 3.9794388
82.44577 101.42699 3.9652412
82.548477 101.42591 3.9635913
82.617416 101.45591 3.9467423
82.787636 101.45773 3.9826417
82.841522 101.4472 3.9499536
82.960915 101.46148 3.9449599
83.048416 101.48257 3.9388797
83.15564 101.46824 3.9383099
83.263863 101.4272 3.9498999
83.336884 101.46094 3.9419408
83.59111 101.44821 3.9324758
83.640877 101.45061 3.958529
83.747856 101.43446 3.9698548
83.818993 101.42229 3.989608
81.08033 101.53966 3.9482224
81.163879 101.55145 3.9421403
81.203575 101.50416 3.9401073
82.658051 101.55106 3.9422219
82.76651 101.56173 3.9428523
82.810783 101.51077 3.9386671
83.358559 101.54588 3.9453983
83.456123 101.55785 3.9369371
83.54995 101.55973 3.9299908
83.654289 101.54763 3.9436066
83.713905 101.58476 3.9578941
81.094391 101.60586 3.9892168
81.139626 101.6152 3.9731495
82.673225 101.63394 3.9621964
82.742386 101.6397 3.961525
83.354141 101.65264 3.9471872
83.450317 101.64938 3.951628
83.570251 101.63166 3.9533265
83.642166 101.65904 3.9361248
83.74971 101.64851 3.9514763
83.808022 101.68884 3.9864049
83.353989 101.75063 3.9594939
83.440239 101.74654 3.9696362
83.669266 101.728 3.9616828
83.749725 101.75101 3.9637864
83.814438 101.74901 3.9874878
83.354683 101.82421 3.9856415
83.417686 101.80923 3.9923923
83.817101 101.80042 3.9983566
82.684479 98.358513 4.014761
82.704697 98.356049 4.0651269
82.821213 98.35125 4.0562925
83.075157 98.365402 4.0525923
83.157364 98.36982 4.0583634
82.687645 98.448822 4.0141959
82.705521 98.450195 4.0640283
82.823494 98.445671 4.0613351
83.075951 98.413345 4.0068917
83.173798 98.445747 4.0424504
81.898033 98.575661 4.0593743
81.946327 98.560448 4.0417037
82.0215 98.558487 4.0417242
82.687172 98.530693 4.0109282
82.707253 98.554588 4.0575819
82.821983 98.549896 4.0637794
83.178001 98.546776 4.0521913
83.203117 98.58429 4.0069165
83.394165 98.56543 4.0405574
83.43103 98.584015 4.0496554
81.898338 98.650337 4.049428
81.901749 98.644409 4.0532842
82.047226 98.602585 4.0010796
82.707916 98.65065 4.0488467
82.816063 98.64946 4.0491443
83.178802 98.646347 4.0597258
83.205124 98.645172 4.0053368
83.474236 98.616501 4.0334725
83.521126 98.656952 4.0497956
81.898247 98.749611 4.0470443
81.901237 98.74865 4.0538182
82.707901 98.750938 4.0498285
82.815689 98.743065 4.0478864
83.177979 98.748718 4.0558677
83.204185 98.730698 4.0040503
83.523956 98.747955 4.0489349
81.897949 98.851257 4.0486712
81.901031 98.843933 4.0583854
82.707245 98.84771 4.0501604
82.818756 98.822433 4.0301499
83.175049 98.850639 4.0521455
83.200783 98.806122 4.0057497
83.522026 98.849731 4.047246
81.895897 98.950119 4.0471573
81.900757 98.954269 4.0654225
82.061798 98.99118 4.0246491
82.706627 98.946632 4.0498581
82.818352 98.993935 4.0577331
83.174088 98.949623 4.0456796
83.520248 98.9468 4.0484619
81.286224 99.093323 4.0508275
81.339554 99.092117 4.0503545
81.567444 99.047226 4.0672193
81.640259 99.027672 4.039885
81.749779 99.012756 4.0497828
81.848015 99.011215 4.0535765
81.900826 99.007248 4.054594
82.075859 99.010254 4.0584126
82.150551 99.011879 4.0494866
82.249535 99.012535 4.0492873
82.349869 99.012932 4.0487585
82.450172 99.01342 4.0484252
82.54969 99.013245 4.0497375
82.647728 99.012573 4.0509052
82.70649 99.00737 4.0482984
82.849014 99.012909 4.0423002
82.902191 99.015106 4.0049
83.184189 99.007729 4.0465059
83.244415 99.008484 4.0454183
83.327896 99.008804 4.0442209
83.557442 99.009232 4.0546913
83.650719 99.010086 4.0500321
83.76149 99.037712 4.0413651
83.815445 99.064857 4.0731263
81.240807 99.146904 4.0512648
81.387993 99.111786 4.0511918
81.427956 99.149559 4.0541739
81.568016 99.131187 4.0684381
81.638184 99.141884 4.0369139
81.749893 99.154922 4.0490718
81.858185 99.164009 4.0526829
81.90168 99.16436 4.0780001
82.161339 99.154007 4.0448527
82.250214 99.154213 4.0477347
82.346832 99.154823 4.0499277
82.450348 99.155632 4.0511718
82.550255 99.155777 4.0501261
82.669952 99.166725 4.0504785
82.710983 99.197807 4.0015469
82.865479 99.152634 4.0367389
82.927246 99.149376 4.0460911
83.179924 99.161682 4.050621
83.247643 99.146576 4.0498147
83.326462 99.145836 4.0487561
83.542084 99.151733 4.0492516
83.650215 99.142929 4.0499969
83.750893 99.133583 4.0501041
83.812775 99.118668 4.0837579
81.218369 99.248566 4.0495596
81.441124 99.274635 4.0428934
81.897713 99.250954 4.0491843
81.901138 99.263512 4.0337181
82.68911 99.250198 4.0493493
82.728714 99.216515 4.0042305
82.822113 99.216621 4.059917
83.173073 99.256645 4.0475855
83.517151 99.253944 4.0497494
81.273315 99.322914 4.051384
81.348427 99.338737 4.0490527
81.411652 99.312683 4.0521102
81.898209 99.356331 4.0475116
81.930359 99.346016 4.036284
82.018517 99.339531 4.0193238
82.688942 99.350281 4.0494509
82.819237 99.396088 4.0285225
83.172386 99.348221 4.0529666
83.202782 99.395622 4.0022502
83.51767 99.351593 4.0491357
81.149818 99.473015 4.0765858
81.215767 99.470894 4.0777569
81.560226 99.459259 4.0502753
81.644119 99.454193 4.0456295
81.896683 99.451126 4.0439172
81.901558 99.438133 4.0791569
82.688919 99.451645 4.0505962
82.817879 99.455627 4.041378
83.172386 99.451965 4.0534172
83.202927 99.447334 4.0036783
83.517746 99.449669 4.0493736
81.134399 99.550682 4.0381479
81.219055 99.551163 4.0414939
81.552689 99.545547 4.0442309
81.670547 99.529984 4.0513926
81.746361 99.554901 4.0490122
81.895088 99.548492 4.0443487
81.901329 99.509857 4.0934873
82.687782 99.548203 4.0503321
82.819153 99.545204 4.054728
83.171646 99.551933 4.052959
83.202782 99.539619 4.00425
83.388824 99.586418 4.0114899
83.452278 99.567856 4.0441537
83.515442 99.522926 4.0521059
81.099678 99.660858 4.00525
81.113731 99.64267 4.0395145
81.22374 99.641548 4.0419378
81.651718 99.648567 4.0492258
81.772835 99.627861 4.0447779
81.862968 99.648544 4.0498004
82.681824 99.650818 4.0516038
82.823257 99.649635 4.0592294
83.173111 99.65168 4.048173
83.20076 99.697815 4.0654097
83.388382 99.609756 4.0602717
83.405289 99.603508 4.066412
80.663239 99.766373 4.0585856
80.74511 99.755814 4.0445271
80.850433 99.757317 4.0490427
80.94928 99.761101 4.0500441
81.053848 99.75795 4.0459547
81.103889 99.725998 4.0622845
81.257072 99.75425 4.0461245
81.355087 99.780708 4.0475373
81.456123 99.786118 4.0527859
81.548668 99.784386 4.047966
81.641876 99.785347 4.0442753
81.744354 99.75029 4.0484338
81.890297 99.712814 4.0473971
82.081001 99.789444 4.0452423
82.150452 99.790428 4.0486336
82.25248 99.791519 4.0451798
82.352516 99.792725 4.0467219
82.450981 99.79406 4.047442
82.550682 99.797005 4.048346
82.666214 99.759361 4.0477777
82.824982 99.751503 4.0533934
83.070183 99.785225 4.012917
83.170082 99.752792 4.0449867
83.205154 99.70871 4.05371
80.656143 99.848717 4.0495205
80.711166 99.850227 4.0069489
81.368835 99.835716 4.0151629
81.449295 99.8479 4.0306687
82.640732 99.802017 4.0589156
82.815956 99.855476 4.0490441
83.071899 99.819565 4.059072
83.154419 99.816887 4.0580449
83.202423 99.831306 4.0292435
80.661201 99.904831 4.0509434
80.743912 99.901268 4.00946
80.800682 99.902863 4.0022502
80.974846 99.905022 4.002583
81.088493 99.948151 4.0489273
81.102303 99.968597 4.0469456
81.292427 99.91436 4.0009999
81.369255 99.918274 4.0131769
81.44989 99.915176 4.0400066
81.521797 99.925659 4.0101247
81.887497 99.969139 4.0499368
82.17968 99.993355 4.0022497
82.683762 99.97628 4.0508504
82.816231 99.947418 4.0513787
83.074715 99.959549 4.0416861
83.153885 99.967163 4.05165
81.098755 100.05757 4.0496325
81.10199 100.04277 4.0367355
81.885674 100.0524 4.0466661
82.070679 100.07738 4.0493493
82.194519 100.01058 4.0095835
82.251244 100.06834 4.0335102
82.684929 100.04682 4.0421901
82.706177 100.07886 4.0512505
82.814507 100.04437 4.0505457
83.072716 100.00215 4.000917
83.172531 100.04726 4.0477853
81.098328 100.15096 4.0494771
81.101868 100.15071 4.0152588
81.88401 100.14989 4.0449147
82.09697 100.10442 4.046802
82.150246 100.15643 4.0448494
82.291374 100.1096 4.0436749
82.338364 100.15739 4.0493336
82.682655 100.14988 4.044138
82.811737 100.14989 4.0492992
82.987534 100.10987 4.0015001
83.173866 100.14716 4.0611634
83.203812 100.15269 4.0073442
83.394524 100.15507 4.0393114
83.440536 100.17532 4.0492215
81.09819 100.25057 4.0551953
81.102554 100.25336 4.0130134
81.881699 100.25088 4.0447764
82.1968 100.20348 4.0442243
82.247139 100.25346 4.0509133
82.39135 100.21162 4.0508618
82.439926 100.26157 4.0495577
82.681076 100.25381 4.0472975
82.81086 100.25093 4.0472703
83.172455 100.24976 4.0639596
83.204926 100.24657 4.0055828
83.479469 100.2128 4.0218782
83.518616 100.25131 4.0485554
81.09819 100.34751 4.0575399
81.103683 100.35056 4.0126557
81.87899 100.35038 4.0442228
82.296234 100.30393 4.037734
82.344803 100.3532 4.0506229
82.489548 100.31298 4.051125
82.536453 100.36084 4.04953
82.679886 100.34774 4.0481491
82.809647 100.34953 4.0519824
83.167007 100.35133 4.0554314
83.205048 100.31835 4.0035233
83.519035 100.34647 4.0513673
81.097977 100.44156 4.0600677
81.103912 100.44479 4.0129361
81.876778 100.44173 4.0485625
82.39537 100.40607 4.0423646
82.418762 100.42882 4.0567002
82.586792 100.41312 4.0486002
82.660782 100.45623 4.049428
82.799782 100.42362 4.0232501
82.808327 100.41344 4.0403409
83.16217 100.44595 4.0486608
83.516098 100.45078 4.0464568
80.386238 100.53847 4.0506039
80.451973 100.53797 4.0521517
80.549538 100.54104 4.0523882
80.649109 100.55251 4.0506372
80.748718 100.55708 4.0506325
80.849983 100.56065 4.0495539
80.950325 100.56399 4.0504603
81.054047 100.5607 4.0512543
81.103569 100.53605 4.0120726
81.261658 100.57388 4.0491762
81.349899 100.57665 4.0500269
81.451187 100.5791 4.0500422
81.550659 100.58157 4.0493469
81.649811 100.57772 4.0487161
81.749428 100.56987 4.050838
81.851898 100.56309 4.0521817
82.070465 100.59274 4.0484495
82.15094 100.59456 4.0441647
82.236458 100.59587 4.0267067
82.350189 100.59812 4.0354075
82.441551 100.5909 4.0317855
82.502762 100.59331 4.0079098
82.6772 100.50784 4.0473447
83.15863 100.55042 4.0471077
83.332542 100.59001 4.0055099
83.51461 100.54449 4.0495672
80.374008 100.68349 4.062398
80.446259 100.68565 4.0763607
80.546387 100.68859 4.0703216
80.660423 100.6918 4.0522628
80.750473 100.69593 4.0488338
80.833809 100.69847 4.0655551
80.905579 100.69969 4.0151401
82.193542 100.6015 4.0931849
82.240036 100.60652 4.0668926
82.355438 100.60244 4.0740633
82.457481 100.60059 4.0539885
82.83905 100.60993 4.0286298
83.175529 100.61194 4.0504074
83.2472 100.61352 4.0466065
83.331551 100.61604 4.0491824
83.55809 100.61759 4.0512977
83.649368 100.62198 4.0488305
83.763359 100.64978 4.0469937
83.812103 100.67615 4.0843525
80.384682 100.71624 4.0138021
80.442757 100.7197 4.0154943
80.544754 100.71967 4.0194335
80.611244 100.70269 4.0461402
80.799583 100.70069 4.00314
80.857307 100.70187 4.0247946
80.951607 100.7039 4.0440578
81.075348 100.73285 4.0429468
81.208847 100.77582 4.0501323
81.480705 100.7118 4.0502748
81.548958 100.71352 4.0469193
81.644379 100.72918 4.0554781
81.746849 100.7442 4.0490518
81.855034 100.7425 4.0509772
81.953949 100.72566 4.0656247
82.039215 100.73656 4.0458598
82.155762 100.7261 4.0508275
82.250999 100.72772 4.0495319
82.349998 100.72956 4.0493693
82.445038 100.73084 4.0478997
82.512825 100.73011 4.0108895
82.67572 100.76125 4.0366669
83.158806 100.76131 4.049993
83.210167 100.74526 4.0381627
83.498093 100.75198 4.0077434
83.55162 100.75663 4.0491033
83.649567 100.75264 4.0472817
83.750969 100.739 4.0530524
83.80896 100.71185 4.0888944
80.647331 100.88194 4.0016398
81.20787 100.80637 4.0451107
82.679581 100.80369 4.01614
83.146202 100.83501 4.0427227
83.505112 100.84935 4.049932
80.394051 100.96747 4.0759134
80.429474 100.96607 4.0233126
81.848846 100.97491 4.0345955
81.991478 100.97078 4.0763464
82.033302 100.97251 4.0220084
83.148186 100.90371 4.0113497
83.499763 100.98966 4.0670266
83.504555 100.94743 4.0459185
80.394012 101.02357 4.0746145
80.451645 101.03736 4.0489163
80.546097 101.04067 4.0505733
80.651573 101.05226 4.0489693
80.743637 101.06425 4.0635877
80.845551 101.06541 4.0665317
80.960129 101.05537 4.0528131
81.051888 101.06496 4.0498056
81.199638 101.07204 4.0633931
81.244858 101.06308 4.048759
81.348434 101.06047 4.0507193
81.449753 101.06041 4.058785
81.554443 101.06021 4.0560856
81.650108 101.06091 4.054791
81.749451 101.06269 4.0493293
81.842651 101.05125 4.0503607
81.9925 101.04581 4.0753875
82.046577 101.06337 4.0428925
82.143181 101.08082 4.056685
82.247047 101.08399 4.0743871
82.35421 101.08511 4.070435
82.452515 101.08606 4.0547314
82.54216 101.08656 4.0448012
82.636368 101.08915 4.049521
82.795639 101.09055 4.0600581
82.850357 101.09335 4.0484734
82.902061 101.09319 4.0075355
83.49762 101.05453 4.0652075
83.508369 101.04804 4.0257545
80.67366 101.10209 4.0034647
80.760262 101.10223 4.0033655
80.829765 101.10238 4.003408
81.074913 101.14191 4.0428352
81.198784 101.16348 4.0561862
81.201721 101.13017 4.041554
82.175964 101.1106 4.0107722
82.248764 101.11117 4.0148091
82.344612 101.11199 4.0151606
82.6605 101.1494 4.0479236
82.797142 101.12655 4.0451484
83.280922 101.13841 4.009028
83.495178 101.15078 4.0586944
83.508362 101.12236 4.0133643
80.599319 101.27986 4.0735531
80.603516 101.26443 4.0383725
81.064247 101.20827 4.0104737
81.197243 101.22732 4.0502558
81.203674 101.24329 4.0056944
81.5905 101.29361 4.0064898
81.632736 101.29579 4.0464768
82.195282 101.29662 4.0317497
82.221527 101.29412 4.0114999
82.654999 101.22092 4.0332255
83.187218 101.23775 4.0142503
83.202446 101.25696 4.0035834
83.491524 101.24864 4.0524807
80.598259 101.33714 4.0576687
80.644531 101.37034 4.0407915
80.750725 101.38113 4.0445876
80.849045 101.3868 4.0437436
80.94352 101.39266 4.0432796
81.03035 101.39681 4.0520816
81.173592 101.39371 4.0467844
81.589394 101.35106 4.0071764
81.640862 101.34982 4.0520163
82.19178 101.31344 4.0604715
82.233299 101.35838 4.0340447
83.49099 101.30989 4.0453534
83.554459 101.31586 4.0465369
83.647758 101.31746 4.0488138
83.748817 101.31985 4.049057
83.861206 101.33683 4.0402007
83.921829 101.34801 4.0523448
81.067497 101.44911 4.0501246
81.191971 101.45019 4.0495796
81.250801 101.40784 4.0479898
81.35379 101.41196 4.0493875
81.451035 101.41632 4.0502434
81.551903 101.42082 4.0477867
81.632599 101.42099 4.0633016
82.276665 101.42666 4.0502977
82.347527 101.43316 4.0488691
82.447784 101.43353 4.0448132
82.547241 101.43305 4.0465493
82.640976 101.45246 4.0492973
82.787865 101.46291 4.0510335
82.851418 101.4348 4.0497971
82.937469 101.44037 4.0455756
83.04937 101.44848 4.0652924
83.156853 101.44656 4.0581174
83.253586 101.44242 4.0529156
83.33371 101.45688 4.0435114
83.59037 101.45242 4.0523872
83.644691 101.45892 4.0490251
83.747887 101.45185 4.0468655
83.853844 101.43747 4.0455956
83.901337 101.40262 4.0742502
81.070312 101.54956 4.0520849
81.1903 101.5485 4.0486374
82.649399 101.55045 4.0486732
82.785553 101.54907 4.050591
83.343864 101.54987 4.0478625
83.480354 101.56476 4.0494537
83.519371 101.57777 4.048583
83.668648 101.53709 4.0473752
83.714455 101.58449 4.0453711
81.082718 101.63756 4.0597224
81.153259 101.64893 4.0506082
82.65937 101.6629 4.0388212
82.770599 101.6586 4.0425487
83.339165 101.65104 4.0453248
83.472778 101.65057 4.0479684
83.56955 101.63007 4.0473795
83.620033 101.68307 4.0441499
83.765358 101.63952 4.0485125
83.811661 101.68858 4.0469275
81.080383 101.71629 4.0957403
81.129868 101.70393 4.0932035
82.677734 101.72132 4.0703807
82.736778 101.72408 4.0633655
83.334923 101.75192 4.0465903
83.46917 101.75224 4.0492587
83.668777 101.73395 4.0469885
83.721855 101.78588 4.0423255
83.839798 101.74722 4.046474
83.352669 101.86613 4.0448513
83.440994 101.83515 4.0494614
83.765442 101.8127 4.0501471
83.828773 101.81514 4.0523477
83.336319 101.90423 4.0673113
82.018677 98.37886 4.19625
82.699638 98.349144 4.1750531
82.703377 98.356827 4.1464906
82.810928 98.354012 4.1431518
82.999283 98.333122 4.19625
83.063545 98.344063 4.1590233
83.164688 98.358391 4.151834
83.202492 98.371613 4.1961565
81.993179 98.499863 4.1992502
82.699684 98.419525 4.1914167
82.704742 98.450661 4.1508107
82.81044 98.449699 4.1516891
83.183807 98.44841 4.1424098
83.204773 98.45282 4.1926813
83.341347 98.496704 4.1882873
81.872971 98.551392 4.1596947
81.948418 98.527679 4.1511836
82.040298 98.535164 4.1603293
82.706436 98.549683 4.1498365
82.81002 98.546692 4.1476908
83.167442 98.534454 4.1364665
83.206993 98.511307 4.1903925
83.374962 98.531921 4.1610823
83.443748 98.572029 4.1526885
83.514229 98.593445 4.1864338
81.876381 98.649879 4.1529489
81.901596 98.649536 4.1090479
82.066368 98.641472 4.1712737
82.707176 98.650635 4.149035
82.810249 98.648026 4.1475163
83.171371 98.639366 4.1108618
83.486214 98.607704 4.1240754
83.535103 98.647728 4.1534133
81.878021 98.724243 4.1609297
81.927208 98.735977 4.1498008
82.025116 98.729469 4.1840978
82.70713 98.751282 4.1489444
82.811272 98.724586 4.1403337
83.16674 98.754807 4.1127992
83.479889 98.790131 4.159276
83.541183 98.749977 4.152638
81.898689 98.862724 4.1062536
81.911072 98.853951 4.1198511
82.705894 98.850182 4.1489277
83.171501 98.856194 4.1163116
83.483353 98.825798 4.1770782
83.546661 98.824692 4.1707878
81.897835 98.953789 4.1152616
81.913826 98.953957 4.1354976
82.027351 98.993019 4.186636
82.705147 98.947464 4.1481466
83.170799 98.951439 4.1235809
83.394783 98.995621 4.1912498
83.480179 98.970139 4.1615129
83.516304 98.956993 4.1141367
83.661697 98.991608 4.1679001
83.706192 98.993111 4.1484003
83.811783 98.987617 4.1072502
81.285294 99.093666 4.1498179
81.342194 99.092087 4.1483927
81.55336 99.034073 4.1407809
81.65081 99.010124 4.1497679
81.74971 99.008804 4.1494641
81.848541 99.008049 4.149899
81.929604 99.004662 4.1784844
82.073036 99.009026 4.148139
82.150887 99.010094 4.1497355
82.249298 99.010818 4.150496
82.349892 99.011673 4.1502199
82.450539 99.011971 4.1490326
82.548996 99.012184 4.1479993
82.64682 99.012337 4.1481981
82.704834 99.008331 4.1453543
82.834938 99.013954 4.1519494
83.177261 99.010002 4.1538639
83.239944 99.011124 4.1436667
83.32634 99.012344 4.150754
83.475838 99.012115 4.1820078
83.551949 99.01358 4.1500621
83.650803 99.0299 4.152245
83.739952 99.035149 4.1254373
83.812859 99.047424 4.108397
81.235054 99.144508 4.1507487
81.393486 99.104691 4.1503839
81.428337 99.139175 4.1508074
81.550964 99.139328 4.1382351
81.651787 99.15287 4.1499758
81.75135 99.150948 4.1496305
81.850731 99.155975 4.1438894
81.910225 99.169464 4.1510224
82.173973 99.150558 4.1464562
82.247307 99.15094 4.1494904
82.349342 99.152344 4.1497946
82.449547 99.153763 4.1468143
82.551338 99.154381 4.1476326
82.669136 99.16539 4.1488776
82.700684 99.193863 4.1972499
82.869797 99.15815 4.1642833
82.944496 99.14785 4.1647477
83.040367 99.144379 4.1626849
83.173767 99.159828 4.1355162
83.251503 99.148933 4.1500897
83.330589 99.148949 4.143198
83.463615 99.15004 4.1569724
83.549644 99.150024 4.1456599
83.646606 99.142334 4.145647
83.746437 99.137383 4.1200137
83.809174 99.128326 4.1075954
81.213867 99.247711 4.1497192
81.444275 99.277695 4.1479115
81.507408 99.223152 4.1981201
81.893219 99.257301 4.1332707
81.913338 99.259811 4.1495519
82.690041 99.250702 4.1486859
82.703903 99.234634 4.1978054
82.823868 99.244362 4.1503053
83.169197 99.256264 4.1199164
83.479935 99.257248 4.1144772
83.511414 99.232674 4.1080441
81.26535 99.325859 4.1505818
81.352097 99.343674 4.1518559
81.426598 99.340363 4.1750245
81.58326 99.382492 4.1793737
81.621826 99.378105 4.174511
81.878548 99.352356 4.1615028
81.907265 99.340736 4.1279573
82.689346 99.350471 4.1470852
83.09391 99.370735 4.1344819
83.143867 99.347954 4.1204495
83.483208 99.368378 4.1638155
83.537384 99.369125 4.1613026
81.137299 99.45314 4.1430211
81.221306 99.453468 4.1448393
81.321678 99.423973 4.1938057
81.480904 99.47728 4.1784439
81.545738 99.441803 4.1459022
81.658455 99.444733 4.1426101
81.71917 99.477386 4.1754413
81.88047 99.449532 4.1553373
81.904823 99.456932 4.1205812
82.688507 99.450546 4.146533
82.81823 99.481789 4.1301985
83.095093 99.45578 4.1338439
83.13723 99.450249 4.1180325
